-41.452221 1.137771 305.562195 0.499371 0.732798 -0.462207 
-40.892551 -0.129056 303.840393 0.504091 0.734974 -0.453547 
-38.906479 -0.313240 304.853485 0.495899 0.732324 -0.466675 
-43.489029 1.315648 304.593506 0.506620 0.734888 -0.450861 
-45.553261 1.513859 303.609985 0.514874 0.736833 -0.438158 
-44.946159 0.222725 301.726715 0.518584 0.738276 -0.431298 
-42.898529 0.033693 302.812897 0.511982 0.736396 -0.442261 
-44.283272 -3.533485 295.467499 0.538327 0.742980 -0.397726 
-45.197571 -2.217293 297.037201 0.531786 0.742409 -0.407471 
-43.331650 -4.837252 293.949799 0.542221 0.743239 -0.391907 
-41.649471 -5.061173 295.249695 0.535528 0.741978 -0.403334 
-42.564220 -3.730868 296.742096 0.531504 0.742069 -0.408456 
-43.380959 -2.416828 298.313202 0.525608 0.741233 -0.417504 
-42.369560 -6.165360 292.495911 0.545328 0.745409 -0.383385 
-41.396778 -7.510898 291.122894 0.547967 0.747058 -0.376347 
-39.863190 -7.838028 292.520996 0.541260 0.746160 -0.387663 
-40.748920 -6.437519 293.843414 0.538479 0.743716 -0.396141 
-40.376228 -8.918786 289.847687 0.550081 0.749551 -0.368218 
-39.403381 -10.376460 288.670990 0.551701 0.754087 -0.356341 
-38.028278 -10.685970 290.087189 0.544714 0.752227 -0.370731 
-38.954220 -9.257743 291.269501 0.543522 0.748449 -0.380011 
-38.429428 -11.815520 287.556000 0.551827 0.757811 -0.348152 
-37.492592 -13.276740 286.506104 0.551336 0.762206 -0.339222 
-36.249561 -13.636960 287.956085 0.544870 0.760829 -0.352500 
-37.157410 -12.170150 289.003510 0.545845 0.756076 -0.361112 
-37.777199 -14.324100 284.028503 0.554443 0.768334 -0.319773 
-36.595860 -14.727010 285.479095 0.550255 0.766734 -0.330665 
-36.955441 -15.706530 282.983795 0.553280 0.773560 -0.309010 
-35.744808 -16.132370 284.430115 0.548394 0.771819 -0.321807 
-34.518040 -16.522461 285.909393 0.542049 0.771272 -0.333652 
-35.380199 -15.099620 286.941803 0.545023 0.765686 -0.341577 
-38.903172 -13.934470 282.615295 0.561020 0.769238 -0.305825 
-39.920040 -13.574970 281.244812 0.566684 0.770273 -0.292488 
-39.161991 -14.772940 280.311188 0.564239 0.775302 -0.283800 
-38.102791 -15.242420 281.592194 0.558245 0.774514 -0.297475 
-40.792931 -13.299870 279.940796 0.572473 0.770143 -0.281344 
-41.415230 -13.211830 278.717804 0.576725 0.771083 -0.269851 
-40.720150 -14.002980 278.478699 0.575234 0.773091 -0.267275 
-40.078999 -14.328890 279.225800 0.569689 0.774290 -0.275553 
-41.695621 -13.452550 277.380310 0.580944 0.773009 -0.254874 
-41.862259 -13.913550 275.810211 0.585316 0.774529 -0.239812 
-40.622250 -15.080660 276.164612 0.577590 0.779004 -0.244012 
-40.673012 -14.441390 277.555298 0.574897 0.776476 -0.258029 
-41.987221 -14.489140 274.032806 0.586579 0.778504 -0.223286 
-42.125019 -15.084180 272.101105 0.589842 0.781914 -0.201732 
-40.615360 -16.504129 272.506500 0.581426 0.786728 -0.207371 
-40.589779 -15.804410 274.461792 0.579030 0.782723 -0.228186 
-42.303692 -15.602210 270.066406 0.593772 0.783389 -0.183676 
-42.541561 -16.022329 268.007385 0.600776 0.783573 -0.158368 
-41.068581 -17.496161 268.288910 0.589333 0.790581 -0.166339 
-40.800701 -17.069370 270.396606 0.584998 0.789298 -0.186513 
-42.773769 -16.377171 265.952698 0.604215 0.784564 -0.139223 
-42.950321 -16.668909 263.921112 0.607855 0.785366 -0.117100 
-41.572231 -18.071690 264.212311 0.598250 0.791838 -0.122839 
-41.318211 -17.805500 266.217285 0.593844 0.791560 -0.144161 
-43.063690 -17.000019 261.928406 0.609268 0.786945 -0.097518 
-43.083710 -17.379061 260.019104 0.610832 0.788121 -0.075829 
-41.847870 -18.619511 260.421814 0.603505 0.793310 -0.080254 
-41.743809 -18.329130 262.249908 0.601078 0.792782 -0.101003 
-43.001560 -17.821390 258.207092 0.612024 0.788912 -0.055173 
-42.807590 -18.370199 256.518188 0.610239 0.791347 -0.037125 
-41.673660 -19.379259 257.226288 0.602599 0.796686 -0.046538 
-41.835159 -18.948330 258.744995 0.603941 0.794637 -0.061702 
-42.418201 -19.009239 254.933807 0.607833 0.793785 -0.021078 
-41.837341 -19.726271 253.407303 0.604211 0.796806 -0.005339 
-40.740028 -20.741590 254.504700 0.597391 0.801732 -0.018726 
-41.301159 -19.982241 255.836105 0.599541 0.799677 -0.032659 
-41.073261 -20.556761 251.927200 0.599545 0.800260 0.011357 
-40.215580 -21.424549 250.463806 0.594470 0.803691 0.026194 
-39.120232 -22.415079 251.818207 0.586431 0.809942 0.009610 
-39.974461 -21.545000 253.177505 0.592164 0.805806 -0.004301 
-40.384602 -21.248199 247.619904 0.596576 0.800718 0.054295 
-39.283169 -22.306400 249.014297 0.588606 0.807544 0.037629 
-39.359150 -22.147270 246.143600 0.589316 0.804999 0.068443 
-38.295170 -23.196930 247.566895 0.581394 0.811934 0.052384 
-37.188641 -24.113020 249.003906 0.574371 0.817695 0.038365 
-38.178020 -23.271099 250.430206 0.580995 0.813561 0.023730 
-41.447781 -20.116360 246.224792 0.602819 0.794693 0.071215 
-42.473579 -18.949909 244.793900 0.611843 0.785737 0.090915 
-41.385830 -19.906811 243.277802 0.603655 0.790065 0.106759 
-40.415279 -21.064150 244.717606 0.596550 0.797742 0.087949 
-43.423500 -17.732580 243.300995 0.618362 0.777977 0.111269 
-44.319969 -16.506430 241.724503 0.626041 0.768082 0.134624 
-43.170368 -17.541040 240.251404 0.616453 0.772300 0.153423 
-42.316898 -18.738461 241.791306 0.609435 0.782119 0.129918 
-45.141819 -15.278820 240.080994 0.634149 0.756439 0.160173 
-45.886822 -14.064810 238.380493 0.637950 0.747493 0.185133 
-44.681831 -15.169090 237.057495 0.629136 0.750911 0.200801 
-43.984612 -16.367550 238.669907 0.622950 0.762058 0.176639 
-46.533718 -12.889360 236.664001 0.642389 0.737404 0.208740 
-47.023560 -11.743050 234.945694 0.645879 0.727330 0.232017 
-45.811630 -12.873360 233.838806 0.632828 0.733787 0.247154 
-45.308922 -14.015320 235.438095 0.632847 0.741030 0.224453 
-47.410339 -10.701120 233.267303 0.646448 0.719492 0.253844 
-47.701630 -9.749428 231.718307 0.644879 0.714341 0.271750 
-46.623322 -10.741860 230.795105 0.633603 0.719660 0.283965 
-46.249260 -11.783220 232.270401 0.637605 0.723858 0.263610 
-47.975601 -8.898931 230.371796 0.645753 0.707699 0.286646 
-46.978378 -9.723342 229.438507 0.635671 0.711800 0.298769 
-45.926392 -10.559890 228.355499 0.624793 0.715981 0.311456 
-44.822338 -11.373280 227.213196 0.613385 0.718954 0.326902 
-44.388302 -12.541720 228.565598 0.616106 0.724756 0.308453 
-45.526310 -11.673930 229.715897 0.625712 0.722413 0.294286 
-43.701050 -12.165270 226.043701 0.602264 0.721640 0.341341 
-42.472431 -12.853930 224.892197 0.591115 0.723675 0.356199 
-41.996799 -14.067670 226.212097 0.592381 0.730627 0.339514 
-43.236328 -13.346230 227.389603 0.604101 0.729122 0.321625 
-41.655041 -12.266650 222.457703 0.576902 0.717920 0.389583 
-41.193062 -13.507910 223.707901 0.579226 0.725082 0.372496 
-40.333881 -12.838630 221.269302 0.563177 0.717952 0.409118 
-39.878971 -14.103270 222.516907 0.566115 0.727089 0.388400 
-39.388660 -15.326830 223.828003 0.564669 0.736615 0.372220 
-40.724400 -14.732800 225.016602 0.578839 0.734002 0.355228 
-42.103668 -10.984860 221.266602 0.575251 0.710037 0.406121 
-42.550072 -9.735066 220.152893 0.572945 0.702368 0.422389 
-41.395069 -10.197190 218.995804 0.561121 0.703036 0.436901 
-40.856361 -11.517680 220.051804 0.562088 0.709988 0.424234 
-42.952579 -8.602803 219.140396 0.570355 0.696702 0.435088 
-43.184872 -7.674082 218.169693 0.567318 0.692710 0.445313 
-42.408932 -8.181770 217.720306 0.562037 0.693484 0.450771 
-41.971981 -9.013542 218.210098 0.562511 0.696722 0.445152 
-43.061909 -6.965307 217.001297 0.563429 0.688164 0.457141 
-42.782749 -6.280658 215.610703 0.554978 0.685580 0.471148 
-41.580879 -7.451642 215.366592 0.549596 0.688294 0.473494 
-42.044640 -7.907924 216.756897 0.555966 0.691279 0.461557 
-42.413540 -5.513721 214.092407 0.547985 0.682287 0.483939 
-42.008320 -4.684114 212.515305 0.539859 0.679089 0.497384 
-40.674751 -5.916030 212.201004 0.533386 0.681478 0.501086 
-41.132610 -6.761501 213.798599 0.540260 0.684997 0.488772 
-41.541222 -3.805724 210.951294 0.531358 0.676947 0.509315 
-41.041630 -2.926488 209.386002 0.523772 0.675503 0.518998 
-39.729000 -4.165505 209.101105 0.514162 0.677886 0.525460 
-40.208359 -5.051199 210.641296 0.524922 0.679177 0.513007 
-40.505211 -2.044257 207.838898 0.510985 0.675114 0.532086 
-39.926708 -1.199816 206.307693 0.499467 0.674661 0.543475 
-38.638641 -2.371927 206.151398 0.492828 0.675961 0.547903 
-39.191101 -3.248018 207.610306 0.502579 0.676954 0.537725 
-39.302761 -0.428858 204.812805 0.489790 0.674287 0.552669 
-38.574810 0.271115 203.341095 0.481003 0.674334 0.560276 
-37.405891 -0.916579 203.475998 0.479119 0.674380 0.561833 
-38.064499 -1.570499 204.785202 0.485151 0.674968 0.555919 
-37.684719 0.871104 201.893906 0.471325 0.674386 0.568381 
-36.610909 1.421843 200.374298 0.461241 0.674122 0.576902 
-35.460171 -0.009184 200.863098 0.461275 0.674012 0.577004 
-36.542221 -0.422385 202.196793 0.469915 0.674124 0.569857 
-35.321499 1.929209 198.732803 0.449648 0.675039 0.584927 
-33.710941 2.358113 197.064407 0.435146 0.674725 0.596149 
-32.617298 0.676308 198.093201 0.438949 0.673308 0.594962 
-34.139332 0.386158 199.487396 0.450082 0.673957 0.585840 
-32.507061 8.303946 189.394501 0.392430 0.681078 0.618168 
-32.642841 7.017819 190.999695 0.400433 0.678419 0.615955 
-32.313332 9.505794 187.841095 0.383012 0.683908 0.620945 
-30.461920 8.888398 187.397202 0.378691 0.681888 0.625797 
-30.597900 7.711212 188.895096 0.385915 0.679930 0.623510 
-30.690451 6.462469 190.386093 0.394487 0.677845 0.620408 
-32.081501 10.626770 186.359207 0.375090 0.685282 0.624257 
-31.798510 11.680770 184.935501 0.368388 0.688986 0.624170 
-30.057150 11.088050 184.642807 0.363852 0.687312 0.628661 
-30.274260 10.020440 185.987595 0.370724 0.684137 0.628108 
-31.452070 12.680030 183.536499 0.359570 0.691953 0.626028 
-30.996611 13.619360 182.200195 0.353304 0.694295 0.627002 
-29.403009 12.962200 182.182098 0.349475 0.692485 0.631135 
-29.783630 12.076550 183.380798 0.357717 0.688557 0.630815 
-30.418280 14.520950 180.908997 0.344848 0.698758 0.626752 
-29.741381 15.410540 179.588303 0.337044 0.701443 0.627996 
-28.177950 14.606240 179.746307 0.336365 0.698217 0.631943 
-28.866711 13.768940 180.992294 0.344772 0.694329 0.631695 
-29.034840 16.254150 178.197205 0.329941 0.702921 0.630112 
-28.291759 17.149290 176.820999 0.324350 0.705255 0.630407 
-26.645950 16.315950 177.034805 0.323262 0.701838 0.634764 
-27.420771 15.444500 178.408905 0.328294 0.700621 0.633524 
-27.568520 18.024410 175.391495 0.320725 0.705025 0.632515 
-26.874840 18.890181 173.984299 0.317629 0.705536 0.633507 
-25.147779 18.094561 174.220306 0.316744 0.703552 0.636151 
-25.885481 17.200680 175.614899 0.318987 0.703807 0.634746 
-26.252760 19.802650 172.608505 0.315749 0.705795 0.634158 
-25.688770 20.716230 171.271698 0.313676 0.706265 0.634664 
-24.082899 20.028540 171.433395 0.312738 0.703382 0.638318 
-24.586029 19.062429 172.818695 0.313863 0.703535 0.637596 
-25.244810 21.583151 169.994797 0.311882 0.706211 0.635606 
-23.699751 20.988670 170.074493 0.310674 0.704079 0.638556 
-32.689999 5.593931 192.643494 0.409035 0.676965 0.611889 
-32.511269 4.024448 194.318893 0.416319 0.675355 0.608748 
-30.642929 5.151463 191.865402 0.401250 0.675975 0.618107 
-30.393351 3.763026 193.311295 0.407082 0.674417 0.615992 
-31.751801 2.382435 195.703705 0.423212 0.673764 0.605750 
-30.916439 0.836564 196.849899 0.426592 0.672395 0.604900 
-29.883570 2.325712 194.611298 0.412244 0.672759 0.614370 
-29.221689 0.928428 195.781494 0.416309 0.670967 0.613588 
98.721893 -43.569221 235.495102 0.005687 0.999838 -0.017072 
99.191948 -43.692982 232.119095 0.016233 0.999867 -0.001734 
101.892502 -34.293282 294.006287 0.051200 0.955465 -0.290628 
101.600998 -33.307949 298.603394 0.066498 0.950043 -0.304953 
100.877602 -33.559898 296.739014 0.061437 0.951622 -0.301066 
99.915947 -32.842201 299.425690 0.070844 0.948057 -0.310111 
99.175949 -33.061790 297.578613 0.065280 0.949830 -0.305878 
98.411812 -33.273548 295.716309 0.059775 0.951129 -0.302953 
100.139397 -33.784431 294.841003 0.055225 0.953356 -0.296754 
102.330101 -33.028568 300.436310 0.072028 0.948441 -0.308661 
101.376099 -32.264511 303.031586 0.080115 0.945232 -0.316415 
100.643303 -32.574139 301.240204 0.076119 0.946814 -0.312649 
102.843597 -31.393721 306.550110 0.089486 0.942929 -0.320745 
102.111298 -31.859270 304.782593 0.084723 0.944072 -0.318669 
94.833878 -37.664211 169.732407 0.328121 0.895481 0.300748 
95.914742 -38.438179 170.971207 0.320253 0.901721 0.290408 
94.737068 -37.833340 172.274399 0.318594 0.901553 0.292747 
93.740021 -37.094761 171.119797 0.325838 0.895139 0.304229 
96.956970 -39.117619 172.365402 0.310828 0.908571 0.279079 
97.996727 -39.791950 173.910507 0.301120 0.915520 0.266741 
96.502907 -39.065281 175.262100 0.302301 0.913764 0.271384 
95.619186 -38.466228 173.639008 0.310191 0.907798 0.282283 
99.120148 -40.442249 175.530899 0.292691 0.921673 0.254658 
97.457710 -39.615810 177.022903 0.293767 0.919430 0.261437 
98.657707 -42.790771 245.153793 -0.016229 0.997775 -0.064660 
97.455620 -43.171589 243.291794 -0.011446 0.998566 -0.052294 
99.217392 -43.032360 241.910995 -0.009737 0.998827 -0.047431 
98.159302 -42.516972 248.537292 -0.020792 0.996360 -0.082674 
96.929626 -42.951031 246.585495 -0.017807 0.997381 -0.070094 
96.282372 -42.677261 250.008606 -0.021684 0.995620 -0.090940 
95.124191 -43.147072 247.956207 -0.018652 0.996802 -0.077700 
93.988159 -43.555592 246.041107 -0.015271 0.997814 -0.064295 
95.725098 -43.352779 244.699799 -0.013968 0.998284 -0.056864 
99.227219 -41.639771 255.066498 -0.027158 0.992224 -0.121465 
97.578453 -42.205791 252.284393 -0.024784 0.994167 -0.104963 
104.063698 -26.292110 320.773590 0.114696 0.936237 -0.332123 
103.350601 -26.971880 318.951691 0.112854 0.936378 -0.332355 
102.079697 -25.822250 321.470093 0.115441 0.934994 -0.335351 
100.072899 -25.370041 322.180389 0.115487 0.934247 -0.337411 
99.383034 -26.067780 320.340210 0.113939 0.934356 -0.337634 
101.373299 -26.508860 319.646210 0.113342 0.935142 -0.335652 
98.080490 -24.921511 322.861908 0.115339 0.933619 -0.339194 
96.047173 -24.457430 323.547699 0.115333 0.932642 -0.341872 
95.364639 -25.172470 321.659302 0.113784 0.932509 -0.342755 
97.390259 -25.621161 321.005707 0.114203 0.933183 -0.340775 
93.973419 -23.976151 324.225098 0.113513 0.931656 -0.345155 
91.840492 -23.478279 324.873810 0.111702 0.930550 -0.348710 
91.185661 -24.228001 322.871185 0.111110 0.930394 -0.349315 
93.299728 -24.705059 322.288910 0.113100 0.931580 -0.345495 
89.559677 -22.940840 325.500092 0.109223 0.929604 -0.352004 
87.079750 -22.391060 326.035706 0.105408 0.928555 -0.355914 
86.667160 -23.294010 323.720306 0.105220 0.928596 -0.355861 
88.973297 -23.756960 323.346893 0.109058 0.929474 -0.352397 
84.526047 -22.026690 326.082306 0.100345 0.927360 -0.360465 
82.166748 -21.695181 326.018311 0.094851 0.926161 -0.365006 
82.094429 -22.492201 323.941589 0.095059 0.926442 -0.364237 
84.339577 -22.884710 323.890411 0.100573 0.927069 -0.361150 
79.943901 -21.316111 325.921600 0.089538 0.925174 -0.368832 
77.775543 -20.937780 325.841309 0.083433 0.923747 -0.373805 
77.785263 -21.597410 323.866486 0.082869 0.923754 -0.373913 
79.912483 -22.059719 323.914490 0.090031 0.925172 -0.368714 
75.681778 -20.468861 325.754913 0.075313 0.922587 -0.378367 
73.599678 -19.981190 325.688385 0.068342 0.920837 -0.383912 
73.647552 -20.574039 323.732697 0.067542 0.920564 -0.384707 
75.704613 -21.102390 323.803101 0.075781 0.922394 -0.378744 
71.520142 -19.470160 325.632690 0.059453 0.918975 -0.389809 
69.416481 -18.938841 325.594208 0.052211 0.917020 -0.395410 
69.512016 -19.494480 323.632294 0.050836 0.917401 -0.394703 
71.583313 -20.026220 323.678314 0.059124 0.919023 -0.389746 
67.273811 -18.474970 325.582886 0.043433 0.915307 -0.400409 
65.113388 -18.044350 325.512695 0.035743 0.912131 -0.408336 
65.278931 -18.516960 323.460602 0.032827 0.912779 -0.407132 
67.412300 -18.962420 323.573090 0.041741 0.914678 -0.402023 
62.911461 -17.701771 325.351593 0.028039 0.909179 -0.415461 
60.698200 -17.485170 325.133392 0.021656 0.905513 -0.423765 
60.965919 -17.900221 323.097992 0.016675 0.905969 -0.423016 
63.134331 -18.174290 323.307190 0.024018 0.909366 -0.415303 
58.458012 -17.340700 324.874207 0.016044 0.901210 -0.433086 
56.207771 -17.439980 324.603485 0.010657 0.896623 -0.442667 
56.494629 -17.776560 322.582397 0.005611 0.897785 -0.440398 
58.757679 -17.778179 322.855804 0.011720 0.901765 -0.432067 
53.945980 -17.640430 324.293793 0.006201 0.892399 -0.451204 
51.705490 -18.049290 324.030212 0.001789 0.887133 -0.461511 
51.985699 -18.570650 321.884094 -0.007889 0.888480 -0.458848 
54.262779 -18.084101 322.235199 -0.001600 0.893226 -0.449605 
49.402069 -18.511209 323.836609 -0.001027 0.881328 -0.472504 
47.016911 -19.024870 323.852203 0.000804 0.875613 -0.483012 
46.694149 -20.136820 321.166107 -0.013787 0.876788 -0.480679 
49.586571 -19.268761 321.552612 -0.011273 0.882580 -0.470028 
44.804951 -19.285851 324.409393 0.007536 0.868518 -0.495601 
44.114929 -20.283970 322.459595 -0.002797 0.869002 -0.494802 
27.207020 -20.934050 324.294495 0.095078 0.813773 -0.573353 
25.797300 -21.294230 323.750702 0.103989 0.810892 -0.575882 
26.493080 -22.326530 322.528412 0.091664 0.817071 -0.569203 
27.976900 -21.764200 323.325409 0.081629 0.820836 -0.565300 
24.044689 -21.523359 323.125610 0.115870 0.807166 -0.578841 
21.944380 -21.634411 322.552704 0.139949 0.799935 -0.583539 
22.181290 -23.660770 320.591614 0.128413 0.809597 -0.572768 
24.656380 -22.946079 321.677795 0.106376 0.813451 -0.571823 
19.718630 -21.220360 322.329712 0.163992 0.790869 -0.589604 
17.637020 -20.613661 322.200806 0.188593 0.779847 -0.596884 
17.288561 -22.129150 320.689301 0.185473 0.786859 -0.588602 
19.470350 -22.940121 320.701385 0.159886 0.797522 -0.581717 
15.713090 -19.884270 322.015289 0.209626 0.770203 -0.602366 
13.856440 -19.163679 321.773010 0.227736 0.760573 -0.608001 
13.608920 -20.559010 320.509796 0.224234 0.768032 -0.599871 
15.358270 -21.339600 320.652710 0.207195 0.776572 -0.594984 
12.044300 -18.528650 321.444794 0.244207 0.753057 -0.610957 
10.292620 -18.040489 321.003204 0.260557 0.744740 -0.614388 
10.444080 -19.415550 319.955292 0.256781 0.751167 -0.608121 
11.973730 -19.892090 320.289215 0.240063 0.760113 -0.603819 
8.584163 -17.723740 320.407593 0.277041 0.737305 -0.616141 
6.887205 -17.549690 319.710907 0.291212 0.732008 -0.615922 
7.415495 -19.056339 318.768311 0.281939 0.742173 -0.608021 
8.950410 -19.156269 319.439697 0.268793 0.746811 -0.608296 
5.180846 -17.545780 318.879791 0.305873 0.727881 -0.613702 
3.498812 -17.628950 318.001099 0.320841 0.724462 -0.610095 
4.234225 -19.144650 317.108093 0.310664 0.734558 -0.603251 
5.834443 -19.065050 317.965607 0.295432 0.739475 -0.604894 
1.862144 -17.746490 317.073792 0.335298 0.720705 -0.606761 
0.248458 -17.892590 316.096405 0.346046 0.719363 -0.602304 
1.086600 -19.387489 315.258514 0.337662 0.728040 -0.596609 
2.647743 -19.264610 316.225800 0.325302 0.730822 -0.600065 
-1.359130 -18.077600 315.082489 0.358258 0.716642 -0.598394 
-2.919067 -18.341740 314.086304 0.368907 0.716117 -0.592524 
-2.014595 -19.742491 313.236786 0.360105 0.726672 -0.585040 
-0.482732 -19.531111 314.269989 0.349016 0.727078 -0.591223 
-5.298989 -17.178350 313.828796 0.387043 0.706549 -0.592441 
-4.384901 -18.605209 313.047089 0.378935 0.716089 -0.586195 
-6.719199 -17.467390 312.734406 0.395043 0.708373 -0.584934 
-5.793135 -18.856260 311.968506 0.389413 0.716823 -0.578379 
-4.903362 -20.208290 311.147705 0.380131 0.728493 -0.569911 
-3.496911 -19.994381 312.210205 0.369135 0.728638 -0.576911 
-6.278836 -15.722840 314.575714 0.391699 0.700256 -0.596836 
-7.303647 -14.181300 315.255005 0.397856 0.695666 -0.598130 
-8.762759 -14.550010 314.205109 0.405076 0.696385 -0.592420 
-7.697936 -16.031771 313.458588 0.400518 0.701268 -0.589752 
-8.396672 -12.685740 315.888000 0.400868 0.692927 -0.599297 
-9.517934 -11.151340 316.492615 0.404318 0.691206 -0.598966 
-11.047500 -11.724620 315.281799 0.411126 0.691823 -0.593596 
-9.888150 -13.192210 314.746704 0.408085 0.693617 -0.593601 
-10.630850 -9.535693 317.022491 0.405117 0.690310 -0.599460 
-11.700590 -7.983195 317.524902 0.407942 0.689562 -0.598404 
-13.308800 -8.550919 316.375214 0.413382 0.690937 -0.593061 
-12.225410 -10.161620 315.815887 0.412356 0.691115 -0.593567 
-12.566120 -6.515139 318.001007 0.408513 0.689709 -0.597846 
-14.084570 -6.885106 316.979401 0.411736 0.692737 -0.592105 
29.348480 2.164514 169.044693 0.294404 0.622603 0.725046 
27.723101 2.989918 168.918396 0.295679 0.620847 0.726032 
31.009340 1.288197 169.220200 0.293342 0.625436 0.723036 
30.086840 -0.090846 170.375000 0.291018 0.624420 0.724851 
28.548731 0.845512 170.164703 0.292926 0.622668 0.725588 
27.019381 1.664417 170.036606 0.294108 0.620509 0.726959 
32.709240 0.396826 169.380005 0.291462 0.628515 0.721123 
34.517658 -0.497038 169.538803 0.289780 0.633616 0.717327 
33.570499 -2.095206 170.887299 0.287209 0.632779 0.719098 
31.738411 -1.091147 170.639496 0.288579 0.628578 0.722226 
36.445938 -1.313077 169.650894 0.287668 0.638518 0.713822 
38.443901 -2.052543 169.668304 0.287929 0.644831 0.708018 
37.673679 -3.700150 171.040802 0.282015 0.646465 0.708908 
35.596149 -2.949784 171.031204 0.283711 0.639660 0.714383 
40.431740 -2.772603 169.625107 0.288274 0.651723 0.701537 
42.408531 -3.461902 169.554199 0.291719 0.659963 0.692350 
41.740841 -5.018876 170.951096 0.282627 0.662348 0.693842 
39.714218 -4.370231 171.001297 0.282469 0.653657 0.702100 
44.400070 -4.157398 169.500397 0.295558 0.667949 0.683001 
46.401329 -4.876684 169.463501 0.298807 0.675418 0.674185 
45.752701 -6.401975 170.847900 0.291351 0.679095 0.673754 
43.750080 -5.691332 170.895493 0.287753 0.669952 0.684370 
48.365330 -5.667444 169.385895 0.303713 0.683773 0.663485 
50.258381 -6.497779 169.273499 0.310728 0.691451 0.652184 
49.605980 -7.896534 170.666199 0.303665 0.693403 0.653436 
47.696812 -7.162552 170.739899 0.297249 0.686424 0.663676 
52.100479 -7.364686 169.163101 0.316613 0.698291 0.641985 
53.916691 -8.217942 169.114899 0.323893 0.704537 0.631444 
53.315109 -9.485668 170.500504 0.317284 0.706602 0.632490 
51.482990 -8.658351 170.584900 0.310921 0.700897 0.641928 
55.662159 -9.098334 169.059097 0.331966 0.710840 0.620085 
57.317139 -10.005310 169.026993 0.341267 0.717119 0.607682 
56.804588 -11.074090 170.372894 0.333326 0.719962 0.608727 
55.093948 -10.311410 170.433807 0.324766 0.713930 0.620348 
58.836620 -10.908640 169.063293 0.350453 0.722855 0.595536 
60.113789 -11.760510 169.214905 0.360862 0.727017 0.584145 
59.421429 -12.269210 170.104904 0.351605 0.728377 0.588083 
58.318722 -11.788990 170.229904 0.342654 0.725327 0.597067 
61.213879 -12.873530 169.713699 0.364087 0.733342 0.574153 
62.444981 -14.319840 170.391098 0.370800 0.739528 0.561788 
60.578388 -15.034450 172.197800 0.351873 0.740255 0.572894 
59.850441 -13.269330 170.865097 0.353165 0.732888 0.581506 
64.119087 -15.782350 170.882004 0.380762 0.746836 0.545212 
65.846397 -17.170691 171.280396 0.387283 0.754042 0.530503 
64.685608 -18.020350 173.014297 0.374231 0.757833 0.534453 
62.780682 -16.666759 172.634995 0.365813 0.748959 0.552487 
67.580406 -18.487379 171.662201 0.391164 0.761543 0.516762 
69.340050 -19.780970 172.055893 0.392380 0.771493 0.500836 
68.260323 -20.507120 173.804596 0.384873 0.774075 0.502674 
66.484451 -19.278120 173.398407 0.380765 0.765842 0.518173 
71.021980 -21.123270 172.420197 0.390353 0.780623 0.488112 
72.728416 -22.405460 172.837296 0.388157 0.790847 0.473176 
71.764610 -22.861460 174.678207 0.383365 0.794085 0.471657 
70.012550 -21.692450 174.227997 0.387188 0.783063 0.486722 
74.486343 -23.675211 173.308807 0.384619 0.802054 0.456922 
76.166527 -25.072309 173.747299 0.379090 0.812951 0.442043 
75.236732 -25.401360 175.661697 0.376697 0.816001 0.438453 
73.513741 -24.105900 175.171097 0.380907 0.804815 0.455174 
77.777458 -26.477501 174.217606 0.373672 0.824931 0.424098 
79.398598 -27.821980 174.763199 0.367255 0.836883 0.405895 
78.509521 -28.030979 176.721802 0.363913 0.838682 0.405191 
76.909073 -26.701401 176.178299 0.370993 0.827385 0.421661 
80.992691 -29.185600 175.342300 0.357751 0.849676 0.387382 
82.623848 -30.502859 175.982895 0.347374 0.862619 0.367723 
81.780449 -30.535730 177.993607 0.342341 0.865961 0.364575 
80.122887 -29.301430 177.326202 0.353889 0.851913 0.386014 
84.254066 -31.806999 176.670898 0.338900 0.873547 0.349374 
85.907242 -33.043789 177.381393 0.328487 0.883817 0.333111 
85.176949 -33.006500 179.431503 0.324689 0.886535 0.329596 
83.444977 -31.796921 178.685303 0.334154 0.876441 0.346686 
87.615631 -34.206718 178.061493 0.320136 0.892287 0.318335 
89.383530 -35.378010 178.670395 0.311688 0.900938 0.301929 
88.748123 -35.375561 180.869507 0.303633 0.904799 0.298574 
86.906761 -34.176319 180.155807 0.314125 0.895899 0.314151 
91.528389 -36.404579 177.009796 0.310659 0.903638 0.294839 
91.292763 -36.542191 179.108200 0.302052 0.909004 0.287186 
93.220970 -37.397480 177.096298 0.303897 0.909331 0.284189 
93.427032 -37.704090 179.197403 0.294920 0.915000 0.275314 
90.863342 -36.642750 181.570206 0.293030 0.914348 0.279467 
91.735992 -36.333759 175.189804 0.316763 0.899445 0.301098 
92.084869 -36.359161 173.721603 0.321528 0.896925 0.303554 
92.923737 -36.936531 174.164001 0.317311 0.901136 0.295412 
93.044601 -37.111351 175.279800 0.313846 0.903901 0.290627 
92.777473 -36.648201 172.445694 0.323919 0.895790 0.304363 
93.680580 -37.314060 173.384506 0.318747 0.900969 0.294373 
99.085953 -40.925819 261.051697 -0.025071 0.987700 -0.154341 
99.119690 -41.294552 258.429688 -0.026483 0.989771 -0.140186 
99.042458 -40.188320 265.887085 -0.021791 0.983907 -0.177346 
99.059250 -40.553940 263.574585 -0.023642 0.985796 -0.166272 
99.023453 -39.481121 269.868011 -0.016561 0.980109 -0.197766 
99.030060 -39.877731 267.997192 -0.019270 0.982210 -0.186794 
99.989998 -38.718868 273.201202 -0.009836 0.976865 -0.213631 
99.000038 -38.846970 272.567200 -0.009887 0.977228 -0.211964 
99.014450 -39.107639 271.464813 -0.013426 0.978552 -0.205564 
98.968742 -38.395809 274.311188 -0.006374 0.975459 -0.220088 
97.587891 -38.130150 275.407196 -0.003563 0.973955 -0.226714 
96.482780 -38.559219 273.901001 -0.007684 0.975355 -0.220507 
97.975548 -38.716782 273.103210 -0.009057 0.976633 -0.214721 
97.457108 -37.461021 278.051392 0.001490 0.971491 -0.237072 
96.017471 -37.812721 276.598114 -0.000870 0.972073 -0.234679 
96.157227 -37.031471 279.361206 0.005754 0.969201 -0.246206 
94.425461 -37.481220 278.038086 0.002554 0.969808 -0.243858 
92.198769 -38.165131 276.352814 -0.002038 0.971042 -0.238901 
94.618912 -38.397579 274.937592 -0.005303 0.973588 -0.228250 
98.770660 -37.124802 279.409698 0.005329 0.970408 -0.241414 
99.813744 -36.822651 280.823395 0.010141 0.968999 -0.246856 
98.676788 -36.536209 281.399200 0.011207 0.967919 -0.251013 
97.603973 -36.745670 280.511200 0.009242 0.968517 -0.248774 
100.357002 -36.470081 282.540802 0.013859 0.967666 -0.251855 
100.770103 -36.015301 284.661713 0.021210 0.965087 -0.261071 
98.171967 -35.510422 285.131195 0.023085 0.963266 -0.267555 
98.511879 -36.166279 282.753113 0.015643 0.966146 -0.257520 
101.524399 -35.623322 286.943909 0.028189 0.963004 -0.268008 
100.339104 -34.792000 289.889099 0.037173 0.959298 -0.279938 
99.393341 -35.078350 287.702393 0.030771 0.961024 -0.274748 
101.151299 -34.532871 292.004211 0.044521 0.957459 -0.285114 
99.351372 -34.008209 292.893799 0.049277 0.955070 -0.292256 
97.602028 -33.481392 293.826202 0.054214 0.952196 -0.300638 
96.661957 -33.717930 291.903412 0.046453 0.954202 -0.295534 
98.463516 -34.231911 290.887085 0.041603 0.956836 -0.287634 
96.683578 -32.759979 296.584015 0.063248 0.949289 -0.307977 
95.836472 -32.994228 294.745392 0.057235 0.950100 -0.306651 
94.948288 -32.263031 297.452209 0.066485 0.946955 -0.314415 
94.087212 -32.518799 295.648712 0.060831 0.947688 -0.313347 
93.167198 -32.814621 293.856201 0.053875 0.949197 -0.310035 
94.901718 -33.235668 292.894012 0.050724 0.951562 -0.303245 
97.473289 -32.546680 298.410095 0.069677 0.947365 -0.312481 
98.230507 -32.332729 300.226105 0.074263 0.946698 -0.313445 
96.545708 -31.822330 301.013702 0.077625 0.944407 -0.319484 
95.757881 -32.040199 299.229706 0.072696 0.945727 -0.316727 
98.957138 -32.092579 302.021790 0.079630 0.944643 -0.318290 
99.665871 -31.780279 303.788696 0.084104 0.943950 -0.319195 
97.943253 -31.271811 304.528595 0.087051 0.942128 -0.323753 
97.263168 -31.579250 302.779388 0.082837 0.942730 -0.323107 
100.364899 -31.379210 305.544891 0.088234 0.942097 -0.323523 
101.063904 -30.936991 307.330902 0.092029 0.941643 -0.323790 
99.279541 -30.470869 308.072998 0.094926 0.939894 -0.328007 
98.611137 -30.893169 306.287689 0.090716 0.940537 -0.327355 
101.765602 -30.468090 309.125305 0.096720 0.940697 -0.325168 
102.472504 -29.921391 310.917389 0.099955 0.939841 -0.326663 
100.624496 -29.469370 311.666901 0.102539 0.938209 -0.330529 
99.952057 -30.006550 309.867004 0.099501 0.939017 -0.329161 
103.180901 -29.342699 312.730988 0.104511 0.939359 -0.326621 
103.888100 -28.722820 314.550690 0.107185 0.938838 -0.327253 
101.963303 -28.279909 315.290192 0.108604 0.937354 -0.331019 
101.285797 -28.907570 313.474304 0.106840 0.937978 -0.329823 
102.650002 -27.633961 317.112305 0.110787 0.936966 -0.331394 
5.963827 16.563540 167.494400 0.290757 0.659129 0.693548 
6.362116 15.356420 168.781097 0.293178 0.654427 0.696973 
4.550373 15.520280 169.527603 0.292233 0.658432 0.693590 
4.212522 16.748899 168.168503 0.290420 0.662274 0.690688 
6.792615 14.039070 170.042404 0.295132 0.650234 0.700067 
7.241803 12.582790 171.253494 0.297368 0.646183 0.702866 
5.380849 12.740430 172.156403 0.296724 0.648665 0.700849 
4.938140 14.191040 170.855804 0.294775 0.653763 0.696923 
7.718569 10.995530 172.394501 0.300624 0.641375 0.705878 
8.157700 9.271464 173.347900 0.303759 0.635598 0.709751 
6.295263 9.394723 174.364197 0.304812 0.637572 0.707525 
5.839796 11.125190 173.340698 0.300573 0.643687 0.703792 
8.609601 7.523548 174.227600 0.307276 0.630760 0.712547 
9.043437 5.721467 174.973694 0.311566 0.624722 0.715995 
7.214848 5.777080 176.027100 0.312296 0.626379 0.714227 
6.763185 7.607385 175.268906 0.308344 0.632740 0.710327 
11.304190 3.944457 174.700699 0.313291 0.619554 0.719724 
9.516593 3.949337 175.690308 0.314946 0.620003 0.718614 
11.790920 2.168569 175.367294 0.315696 0.615212 0.722392 
9.997008 2.159088 176.319504 0.317572 0.615121 0.721647 
8.203816 2.175316 177.323395 0.319648 0.616307 0.719716 
7.690631 3.968337 176.713593 0.316216 0.619987 0.718069 
13.103770 3.993116 173.778900 0.310393 0.619278 0.721215 
14.880090 4.073812 172.851700 0.307587 0.619233 0.722454 
15.368600 2.323449 173.581696 0.309095 0.615982 0.724587 
13.578080 2.219890 174.447998 0.311933 0.615842 0.723489 
16.667170 4.213841 171.979706 0.304624 0.618802 0.724078 
18.426821 4.392439 171.118393 0.302868 0.619279 0.724407 
19.000990 2.650283 171.925003 0.302608 0.616526 0.726859 
17.179461 2.468079 172.747803 0.305303 0.616269 0.725949 
20.188780 4.644700 170.249603 0.300395 0.619420 0.725314 
21.902121 5.065086 169.351395 0.299072 0.619881 0.725468 
23.171551 3.215152 170.139694 0.297986 0.617635 0.727827 
20.944059 2.914538 171.123795 0.299852 0.616989 0.727608 
23.182800 5.871192 168.381393 0.298432 0.620660 0.725065 
24.433969 4.687417 168.764206 0.297346 0.619513 0.726491 
94.313889 -37.778412 174.658600 0.311876 0.905993 0.286201 
94.890541 -38.257469 176.334396 0.303451 0.912115 0.275615 
95.533577 -38.753868 178.299606 0.292018 0.918825 0.265494 
98.009087 -43.351910 239.885193 -0.004584 0.999355 -0.035625 
96.565727 -43.722729 237.803696 0.000461 0.999721 -0.023626 
96.202591 -43.540199 241.415894 -0.007319 0.999159 -0.040347 
94.831947 -43.886391 239.606293 -0.004005 0.999583 -0.028587 
98.520668 -41.898628 194.729294 0.212225 0.961455 0.174829 
96.830841 -41.567612 196.037994 0.207046 0.962400 0.175839 
95.766876 -40.957409 194.291794 0.219077 0.957619 0.187004 
97.520844 -41.298988 192.871307 0.221929 0.957172 0.185927 
95.208061 -41.303371 197.409302 0.202218 0.963185 0.177153 
93.649048 -41.088409 198.829193 0.197620 0.963279 0.181768 
92.513641 -40.473701 197.265701 0.206399 0.959104 0.193697 
94.107674 -40.663090 195.764008 0.212876 0.958349 0.190395 
92.129517 -40.969311 200.267502 0.191645 0.964534 0.181512 
90.657066 -40.908321 201.726898 0.186049 0.965256 0.183486 
89.474213 -40.331638 200.292999 0.195636 0.960789 0.196499 
90.975632 -40.340092 198.789505 0.201952 0.959892 0.194482 
89.223343 -40.940182 203.192596 0.180524 0.965535 0.187493 
87.828346 -41.009640 204.701401 0.172137 0.966513 0.190318 
86.600578 -40.466911 203.306000 0.178549 0.962534 0.204080 
88.024979 -40.356411 201.800201 0.189133 0.961252 0.200560 
87.737442 -41.621391 207.586395 0.151256 0.971955 0.180069 
86.451759 -41.165359 206.216400 0.159028 0.967550 0.196358 
86.450859 -41.804642 209.115097 0.140313 0.973258 0.181881 
85.097137 -41.332722 207.753403 0.147470 0.969098 0.197740 
83.812263 -40.806309 206.373993 0.155992 0.964441 0.213354 
85.203850 -40.611172 204.843994 0.166864 0.963115 0.211106 
89.027992 -42.049049 208.888596 0.141895 0.976265 0.163625 
90.284569 -42.397968 210.086807 0.134134 0.979998 0.147008 
89.252876 -42.573101 211.526993 0.123544 0.981350 0.147272 
87.840652 -42.253830 210.398895 0.133118 0.977428 0.164054 
91.433693 -42.694500 211.169907 0.125768 0.983122 0.132866 
92.340027 -42.943180 212.170303 0.119948 0.985368 0.121087 
91.504707 -42.969872 212.789902 0.115598 0.985690 0.122685 
90.573219 -42.827641 212.328598 0.118218 0.984285 0.131179 
92.957550 -43.139118 213.426407 0.111998 0.987547 0.110483 
93.560600 -43.366901 214.995697 0.102968 0.989834 0.098113 
91.870140 -43.345879 215.522507 0.099531 0.989220 0.107413 
91.608757 -43.110970 213.887497 0.108476 0.987209 0.116841 
94.275017 -43.535858 216.816895 0.092678 0.991737 0.088706 
95.113403 -43.739231 218.820999 0.081366 0.993888 0.074601 
93.103043 -43.813251 219.481705 0.078310 0.993453 0.083176 
92.401398 -43.601261 217.438400 0.089303 0.991403 0.095636 
96.020538 -43.856468 221.022903 0.068394 0.995832 0.060334 
96.855240 -43.916649 223.543304 0.056126 0.997344 0.046412 
94.405350 -44.037128 223.942398 0.053578 0.997219 0.051807 
93.809921 -43.929440 221.629593 0.066195 0.995593 0.066435 
97.062843 -43.980709 226.273102 0.041579 0.998639 0.031495 
96.975571 -43.978580 228.913696 0.030250 0.999349 0.019641 
94.685303 -44.159370 228.669800 0.032115 0.999065 0.028943 
94.682732 -44.109741 226.327301 0.041503 0.998426 0.037728 
96.647552 -43.967312 231.508102 0.019582 0.999776 0.008090 
95.979073 -43.958179 234.082703 0.010373 0.999941 -0.003320 
93.850578 -44.238480 233.093201 0.016111 0.999841 0.007617 
94.421227 -44.184799 230.939102 0.023370 0.999569 0.017748 
94.703072 -44.063080 236.238297 0.004588 0.999928 -0.011114 
93.328407 -44.197731 238.046097 -0.000005 0.999816 -0.019158 
91.826408 -44.446640 236.714600 0.004376 0.999968 -0.006652 
92.933060 -44.314751 235.016403 0.010092 0.999949 0.000255 
94.504601 -43.723980 242.880798 -0.010054 0.998955 -0.044576 
93.247711 -44.071701 241.168701 -0.006756 0.999402 -0.033913 
92.857292 -43.948139 244.244904 -0.011941 0.998603 -0.051481 
91.712547 -44.270100 242.570007 -0.008738 0.999194 -0.039177 
91.944504 -44.367210 239.619095 -0.003142 0.999723 -0.023321 
90.626472 -44.602989 238.231400 -0.000013 0.999904 -0.013875 
90.544922 -44.546669 241.027496 -0.005389 0.999583 -0.028366 
89.351517 -44.779140 239.617493 -0.004026 0.999818 -0.018631 
42.831268 -21.363449 320.770905 -0.008302 0.866812 -0.498566 
41.482712 -22.459009 319.333893 -0.012392 0.865262 -0.501166 
43.103649 -22.754511 317.972412 -0.025602 0.870507 -0.491489 
44.694401 -21.529360 319.351410 -0.021090 0.873294 -0.486737 
40.175701 -23.561331 318.101898 -0.017436 0.863759 -0.503603 
38.849930 -24.598650 316.918701 -0.019418 0.861817 -0.506847 
40.342899 -24.964960 315.708405 -0.030666 0.866789 -0.497732 
41.681561 -23.889231 316.789215 -0.028976 0.868430 -0.494965 
36.035549 -25.240959 316.943604 -0.005632 0.856057 -0.516850 
37.543060 -25.633341 315.788391 -0.019631 0.860864 -0.508457 
34.729229 -26.211809 315.820007 -0.002919 0.856180 -0.516670 
36.248310 -26.617050 314.649597 -0.018326 0.862278 -0.506104 
37.741249 -27.037149 313.455597 -0.032108 0.866421 -0.498281 
39.022251 -26.037741 314.587799 -0.032669 0.866392 -0.498295 
34.532791 -24.838751 318.051514 0.009429 0.849588 -0.527362 
33.046360 -24.385799 319.150085 0.024884 0.843817 -0.536053 
31.729450 -25.297661 318.031189 0.029317 0.843204 -0.536793 
33.229439 -25.787590 316.922607 0.011966 0.850311 -0.526145 
31.613510 -23.882919 320.234100 0.039777 0.838384 -0.543626 
30.243799 -23.261749 321.272186 0.055560 0.831544 -0.552673 
28.839560 -24.117100 320.234894 0.058764 0.831617 -0.552232 
30.260679 -24.769320 319.147095 0.047317 0.837396 -0.544544 
29.012280 -22.569530 322.326111 0.069585 0.825802 -0.559650 
27.561029 -23.328751 321.398285 0.075258 0.825626 -0.559177 
-21.985310 20.468019 170.177399 0.308593 0.702290 0.641529 
-20.151381 19.955441 170.283798 0.307150 0.700311 0.644378 
-20.454611 18.842890 171.803299 0.307958 0.700353 0.643947 
-22.347839 19.425140 171.609207 0.310395 0.702129 0.640835 
-18.293480 19.545931 170.403000 0.304542 0.698551 0.647519 
-16.352690 19.176929 170.517899 0.301879 0.696512 0.650953 
-16.707460 18.040859 172.151794 0.304365 0.694509 0.651935 
-18.661690 18.431709 171.968597 0.306275 0.698400 0.646864 
-14.327070 18.863859 170.643906 0.299755 0.693823 0.654795 
-12.215380 18.567209 170.742203 0.297102 0.689338 0.660714 
-12.454780 17.340490 172.492401 0.299316 0.687326 0.661811 
-14.630940 17.675180 172.337601 0.302651 0.690801 0.656655 
-10.055060 18.289970 170.785202 0.295054 0.686394 0.664685 
-7.857905 18.038050 170.755493 0.292394 0.683220 0.669116 
-7.900469 16.696751 172.591400 0.294176 0.679547 0.672069 
-10.210010 17.027241 172.578903 0.296955 0.684038 0.666266 
-5.701625 17.779110 170.539993 0.290779 0.679697 0.673394 
-3.603755 17.566700 170.200607 0.289661 0.676567 0.677018 
-3.498737 16.308340 171.872803 0.291714 0.672273 0.680406 
-5.678123 16.507071 172.274307 0.292466 0.676623 0.675755 
-1.535267 17.381399 169.813202 0.289520 0.673387 0.680241 
0.450527 17.135059 169.319595 0.289742 0.668992 0.684470 
0.684190 15.907550 170.840500 0.292060 0.664660 0.687697 
-1.369679 16.104731 171.393097 0.291541 0.669069 0.683631 
2.364156 16.944210 168.773193 0.289931 0.666165 0.687142 
2.669886 15.735990 170.236893 0.291980 0.661440 0.690829 
96.397453 -40.608109 190.916504 0.232661 0.951394 0.201788 
94.605240 -40.216862 192.487503 0.228719 0.952405 0.201526 
93.329269 -39.382881 190.668503 0.240844 0.946324 0.215558 
95.114990 -39.794449 188.926498 0.246613 0.944510 0.216987 
92.919220 -39.935822 194.091904 0.223689 0.953072 0.204001 
91.311760 -39.753109 195.699203 0.216877 0.954191 0.206117 
90.057579 -38.955109 194.168106 0.226062 0.949019 0.219679 
91.645523 -39.122662 192.453796 0.233318 0.948312 0.215100 
89.747978 -39.669960 197.306702 0.211010 0.954963 0.208617 
88.239670 -39.679272 198.874207 0.204141 0.956190 0.209826 
86.972542 -38.980789 197.495697 0.213121 0.951130 0.223454 
88.474052 -38.948250 195.866501 0.220387 0.949862 0.221794 
86.777611 -39.746490 200.418793 0.195805 0.957445 0.212037 
85.349617 -39.895451 201.942795 0.185611 0.958134 0.218010 
84.088654 -39.235168 200.618896 0.193767 0.952812 0.233674 
85.508072 -39.095161 199.073105 0.206696 0.951392 0.228318 
83.941711 -40.055210 203.480606 0.174870 0.958476 0.225267 
82.527069 -40.268150 205.000000 0.162907 0.959567 0.229546 
81.256851 -39.664680 203.668396 0.170101 0.954583 0.244615 
82.670380 -39.405338 202.166107 0.181315 0.953816 0.239498 
82.415459 -41.042789 207.885803 0.145792 0.965707 0.214839 
81.109337 -40.483799 206.498093 0.153096 0.960845 0.230953 
81.001968 -41.290588 209.365906 0.136962 0.966675 0.216290 
79.664757 -40.741798 207.949097 0.142193 0.961859 0.233687 
78.352409 -40.159000 206.583099 0.149138 0.957201 0.248040 
79.814919 -39.886372 205.150696 0.159987 0.955730 0.246950 
83.740578 -41.574001 209.294998 0.137233 0.970462 0.198420 
85.139000 -42.033531 210.693802 0.130637 0.975064 0.179400 
83.736649 -42.293491 212.272903 0.121386 0.976466 0.178270 
82.328560 -41.807499 210.792892 0.129672 0.971593 0.197969 
86.660873 -42.459949 212.059906 0.122186 0.979061 0.162822 
88.344070 -42.822029 213.272995 0.112400 0.983544 0.141447 
87.359261 -43.205410 215.688400 0.098288 0.986498 0.130998 
85.327904 -42.744370 213.854904 0.110477 0.981293 0.157666 
90.107658 -43.019581 213.809998 0.109448 0.985877 0.126756 
89.923210 -43.315990 215.738693 0.097462 0.988382 0.116631 
90.395119 -43.623810 217.889893 0.086926 0.990838 0.103367 
91.060493 -43.885021 219.978302 0.074277 0.993384 0.087589 
88.994370 -43.957668 220.529404 0.072203 0.992807 0.095506 
88.213593 -43.662529 218.337097 0.083441 0.990282 0.111259 
91.702637 -44.026180 222.109894 0.064429 0.995221 0.073383 
92.233047 -44.137760 224.279907 0.053126 0.996747 0.060612 
90.252907 -44.261101 224.633804 0.051556 0.996417 0.067049 
89.680603 -44.109879 222.610001 0.063002 0.994640 0.081992 
92.557037 -44.248878 226.425201 0.042592 0.997953 0.047695 
92.644043 -44.300308 228.510193 0.033097 0.998820 0.035539 
90.848900 -44.444061 228.458099 0.034427 0.998521 0.042078 
90.651787 -44.358711 226.594101 0.041369 0.997695 0.053790 
92.489059 -44.368759 230.491104 0.025387 0.999357 0.025313 
92.061096 -44.422310 232.335098 0.018158 0.999700 0.016443 
90.558647 -44.579762 231.744003 0.020837 0.999463 0.025278 
90.834343 -44.509232 230.178894 0.026896 0.999086 0.033236 
91.347839 -44.526428 234.022202 0.012325 0.999879 0.009463 
90.417053 -44.652908 235.564896 0.008001 0.999965 0.002607 
89.130722 -44.786911 234.539902 0.011024 0.999833 0.014583 
89.972717 -44.665520 233.177902 0.014678 0.999724 0.018363 
89.342903 -44.807911 236.989105 0.003168 0.999991 -0.002688 
88.156303 -44.967659 238.325394 0.000027 0.999965 -0.008401 
86.917107 -45.102230 237.117401 0.003949 0.999988 0.002737 
88.116257 -44.936340 235.848495 0.006701 0.999951 0.007309 
88.049232 -44.978458 240.894501 -0.006449 0.999683 -0.024326 
86.881912 -45.146030 239.592499 -0.002727 0.999898 -0.014051 
86.765541 -45.157661 242.059402 -0.008769 0.999535 -0.029193 
85.590378 -45.305420 240.789398 -0.006427 0.999806 -0.018637 
84.391586 -45.450008 239.578201 -0.001461 0.999970 -0.007591 
85.657356 -45.269482 238.363998 0.000565 0.999996 -0.002674 
89.134308 -44.745621 242.308502 -0.008957 0.999426 -0.032685 
90.190071 -44.487469 243.837097 -0.009887 0.998985 -0.043951 
88.688683 -44.726921 244.971207 -0.012507 0.998731 -0.048779 
87.742683 -44.961491 243.465195 -0.010992 0.999179 -0.038991 
91.215019 -44.166611 245.485794 -0.013331 0.998301 -0.056730 
92.235268 -43.802570 247.269608 -0.016207 0.997410 -0.070081 
90.485321 -44.065521 248.361206 -0.016598 0.997038 -0.075095 
89.588737 -44.409988 246.593094 -0.014162 0.997993 -0.061725 
100.687401 -27.185600 317.821198 0.111730 0.935605 -0.334903 
98.720001 -26.741030 318.497192 0.112880 0.934387 -0.337904 
98.084610 -27.400620 316.675110 0.110693 0.934745 -0.337637 
100.028099 -27.834141 315.998810 0.110052 0.936010 -0.334327 
96.743317 -26.300671 319.155090 0.112865 0.933418 -0.340576 
94.739937 -25.855619 319.769196 0.113191 0.932714 -0.342392 
94.158989 -26.492870 317.879211 0.111588 0.932508 -0.343478 
96.132851 -26.943520 317.325714 0.111238 0.933578 -0.340672 
92.700478 -25.411421 320.339996 0.112137 0.931538 -0.345922 
90.618927 -24.965139 320.846497 0.110846 0.930581 -0.348901 
90.117180 -25.630510 318.853088 0.110173 0.930671 -0.348874 
92.153023 -26.067400 318.405090 0.111120 0.931789 -0.345576 
88.477173 -24.518230 321.258698 0.108160 0.929295 -0.353146 
86.292824 -24.075230 321.584808 0.105241 0.928374 -0.356435 
85.945770 -24.786610 319.548889 0.104018 0.928275 -0.357051 
88.040009 -25.205130 319.234711 0.107275 0.929461 -0.352980 
84.102440 -23.656931 321.804901 0.100218 0.927346 -0.360535 
81.946808 -23.219170 321.910095 0.095696 0.926308 -0.364411 
81.771339 -23.864149 319.887390 0.094683 0.926045 -0.365343 
83.855568 -24.318590 319.759796 0.100261 0.927671 -0.359686 
79.828423 -22.762930 321.925598 0.089241 0.925006 -0.369324 
77.747963 -22.255220 321.892792 0.081669 0.923804 -0.374053 
77.663979 -22.857071 319.913910 0.080585 0.923667 -0.374627 
79.705681 -23.370680 319.920013 0.088226 0.924942 -0.369728 
75.685440 -21.734051 321.843689 0.074461 0.922301 -0.379231 
73.653847 -21.176979 321.776489 0.066003 0.920754 -0.384521 
73.626663 -21.775440 319.826385 0.064461 0.920879 -0.384482 
75.632950 -22.322729 319.878906 0.072574 0.922522 -0.379059 
71.625717 -20.609940 321.710602 0.057664 0.919171 -0.389615 
69.604401 -20.034540 321.638702 0.048349 0.916987 -0.395977 
69.648941 -20.630640 319.663788 0.045963 0.916932 -0.396388 
71.632912 -21.213289 319.754913 0.055125 0.918872 -0.390686 
67.549149 -19.461611 321.546387 0.039087 0.915055 -0.401430 
65.434036 -19.034100 321.446594 0.029768 0.912377 -0.408266 
65.583946 -19.576599 319.440186 0.027030 0.912367 -0.408480 
67.627602 -20.085661 319.554108 0.036444 0.914682 -0.402528 
63.340370 -18.678520 321.284912 0.021144 0.909696 -0.414736 
61.234169 -18.382059 321.055908 0.012288 0.906225 -0.422618 
61.460442 -19.019960 319.131989 0.009572 0.906838 -0.421370 
63.509689 -19.250509 319.312714 0.017452 0.909798 -0.414684 
59.091728 -18.297609 320.821411 0.005826 0.902761 -0.430102 
56.922421 -18.329290 320.519409 -0.001859 0.898570 -0.438826 
57.367130 -18.934179 318.560486 -0.006761 0.899834 -0.436181 
59.418861 -18.898951 318.880005 0.000381 0.903271 -0.429070 
54.728802 -18.620781 320.156494 -0.008643 0.894384 -0.447216 
52.539028 -19.165529 319.754700 -0.014755 0.889324 -0.457040 
53.239651 -19.816830 317.774109 -0.022919 0.891253 -0.452928 
55.287441 -19.209789 318.178192 -0.015143 0.895186 -0.445435 
50.347542 -19.886681 319.280396 -0.021062 0.885154 -0.464821 
48.121529 -20.822981 318.639099 -0.025472 0.880975 -0.472477 
49.303902 -21.440060 316.604004 -0.035307 0.884302 -0.465578 
51.245838 -20.547359 317.264587 -0.030088 0.887785 -0.459275 
46.216579 -21.968410 317.541412 -0.030903 0.877694 -0.478224 
44.578499 -23.138010 316.430511 -0.036231 0.874680 -0.483344 
45.941910 -23.590139 314.880310 -0.045460 0.878747 -0.475117 
47.526402 -22.473330 315.755615 -0.041398 0.881530 -0.470309 
43.123951 -24.300579 315.377594 -0.040344 0.872763 -0.486474 
41.752300 -25.369360 314.339111 -0.043625 0.872029 -0.487507 
43.132259 -25.845989 312.976593 -0.054968 0.875073 -0.480859 
44.482521 -24.725830 313.918396 -0.050459 0.876910 -0.477999 
40.446079 -26.452110 313.300598 -0.045579 0.870402 -0.490228 
39.192509 -27.482849 312.244812 -0.045630 0.871116 -0.488954 
40.596649 -27.922859 311.002411 -0.057368 0.874928 -0.480842 
41.834721 -26.891150 311.991211 -0.056910 0.874999 -0.480768 
36.507462 -28.039530 312.325897 -0.030630 0.868631 -0.494512 
37.973652 -28.460400 311.148987 -0.043248 0.872480 -0.486733 
35.327332 -28.993019 311.145996 -0.028460 0.870401 -0.491520 
